-144.671 -9.34132 1791.62
-144.671 -8.86228 1791.62
-144.671 -8.38323 1791.62
-144.671 -7.90419 1791.62
-144.671 -7.42515 1791.62
-144.671 -6.94611 1791.62
-144.671 -6.46707 1791.62
-144.865 -6.00601 1797
-144.865 -5.52553 1797
-152 -5.6 1994.67
-152 -5.06667 1994.67
-152 -4.53333 1994.67
-152 -4 1994.67
-144.671 -3.11377 1791.62
-144.671 -2.63473 1791.62
-144.671 -2.15569 1791.62
-144.671 -1.67665 1791.62
-152 -1.33333 1994.67
-144.865 -0.720721 1797
-144.865 -0.24024 1797
-144.865 0.24024 1797
-144.865 0.720721 1797
-148.571 1.26984 1899.68
-144.671 1.67665 1791.62
-144.671 2.15569 1791.62
-144.671 2.63473 1791.62
-144.671 3.11377 1791.62
-152 4 1994.67
-152 4.53333 1994.67
-152 5.06667 1994.67
-152 5.6 1994.67
-152 6.13333 1994.67
-144.671 5.98802 1791.62
-152 7.2 1994.67
-152 7.73333 1994.67
-152 8.26667 1994.67
-152 8.8 1994.67
-145.06 8.43373 1802.41
-144.478 8.83582 1786.27
-144.478 9.31343 1786.27
-144.478 9.79104 1786.27
-144.478 10.2687 1786.27
-151.287 11.8812 1974.92
-151.287 12.4092 1974.92
-152 13.0667 1994.67
-144.478 12.1791 1786.27
-144.478 12.6567 1786.27
-152 14.6667 1994.67
-152 15.2 1994.67
-152 15.7333 1994.67
-144.478 14.5672 1786.27
-152 16.8 1994.67
-152 17.3333 1994.67
-144.478 16 1786.27
-144.478 16.4776 1786.27
-152 18.9333 1994.67
-152 19.4667 1994.67
-152 20 1994.67
-144.478 18.3881 1786.27
-144.286 18.8095 1780.95
-152 21.6 1994.67
-150.13 21.5584 1942.86
-150.13 22.0779 1942.86
-144.286 20.7143 1780.95
-152 23.7333 1994.67
-148.571 23.1111 1899.68
-152 24.8 1994.67
-152 25.3333 1994.67
-152 25.8667 1994.67
-144.286 23.5714 1780.95
-144.286 24.0476 1780.95
-144.286 24.5238 1780.95
-149.677 27.0968 1930.32
-152 28.5333 1994.67
-144.095 25.8754 1775.67
-144.095 26.3501 1775.67
-144.095 26.8249 1775.67
-144.095 27.2997 1775.67
-144.095 27.7745 1775.67
-144.095 28.2493 1775.67
-144.095 28.724 1775.67
-144.095 29.1988 1775.67
-152 33.3333 1994.67
-152 33.8667 1994.67
-148.79 32.8662 1905.73
-152 34.9333 1994.67
-152 35.4667 1994.67
-145.653 32.8267 1818.84
-143.905 32.426 1770.41
-143.905 32.8994 1770.41
-143.905 33.3728 1770.41
-143.905 33.8462 1770.41
-143.905 34.3195 1770.41
-143.905 34.7929 1770.41
-143.905 35.2663 1770.41
-143.905 35.7396 1770.41
-152 40.8 1994.67
-152 41.3333 1994.67
-152 41.8667 1994.67
-152 42.4 1994.67
-143.905 38.1065 1770.41
-143.905 38.5799 1770.41
-152 44 1994.67
-152 44.5333 1994.67
-152 45.0667 1994.67
-152 45.6 1994.67
-152 46.1333 1994.67
-152 46.6667 1994.67
-152 47.2 1994.67
-152 47.7333 1994.67
-149.903 46.8608 1936.57
-152 48.8 1994.67
-152 49.3333 1994.67
-152 49.8667 1994.67
-152 50.4 1994.67
-152 50.9333 1994.67
-152 51.4667 1994.67
-152 52 1994.67
-152 52.5333 1994.67
-152 53.0667 1994.67
-144.478 48 1786.27
-152 54.1333 1994.67
-148.354 51.8987 1893.67
-148.139 52.2397 1887.7
-148.354 52.9114 1893.67
-148.354 53.4177 1893.67
-152 56.8 1994.67
-152 57.3333 1994.67
-152 57.8667 1994.67
-152 58.4 1994.67
-152 58.9333 1994.67
-152 59.4667 1994.67
-152 60 1994.67
-152 60.5333 1994.67
-152 61.0667 1994.67
-148.354 58.481 1893.67
-152 62.1333 1994.67
-152 62.6667 1994.67
-152 63.2 1994.67
-148.354 60.5063 1893.67
-152 64.2667 1994.67
-147.5 60.75 1870
-152 65.3333 1994.67
-152 65.8667 1994.67
-151.287 65.7426 1974.92
-152 66.9333 1994.67
-152 67.4667 1994.67
-152 68 1994.67
-152 68.5333 1994.67
-152 69.0667 1994.67
-151.761 69.3688 1988.04
-151.287 69.4389 1974.92
-151.761 70.4319 1988.04
-152 71.2 1994.67
-150.588 70.3268 1955.56
-152 72.2667 1994.67
-152 72.8 1994.67
-152 73.3333 1994.67
-152 73.8667 1994.67
-152 74.4 1994.67
-152 74.9333 1994.67
-152 75.4667 1994.67
-152 76 1994.67
-152 76.5333 1994.67
-152 77.0667 1994.67
-152 77.6 1994.67
-152 78.1333 1994.67
-152 78.6667 1994.67
-152 79.2 1994.67
-152 79.7333 1994.67
-152 80.2667 1994.67
-152 80.8 1994.67
-152 81.3333 1994.67
-152 81.8667 1994.67
-152 82.4 1994.67
-152 82.9333 1994.67
-152 83.4667 1994.67
-152 84 1994.67
-152 84.5333 1994.67
-152 85.0667 1994.67
-152 85.6 1994.67
-152 86.1333 1994.67
-152 86.6667 1994.67
-152 87.2 1994.67
-152 87.7333 1994.67
-152 88.2667 1994.67
-152 88.8 1994.67
-152 89.3333 1994.67
-152 89.8667 1994.67
-152 90.4 1994.67
-152 90.9333 1994.67
-152 91.4667 1994.67
-152 92 1994.67
-152 92.5333 1994.67
-152 93.0667 1994.67
-152 93.6 1994.67
-152 94.1333 1994.67
-152 94.6667 1994.67
-152 95.2 1994.67
-152 95.7333 1994.67
-152 96.2667 1994.67
-152 96.8 1994.67
-152 97.3333 1994.67
-152 97.8667 1994.67
-152 98.4 1994.67
-152 98.9333 1994.67
-152 99.4667 1994.67
-148.644 -94.6372 1887.7
-148.644 -94.1325 1887.7
-148.644 -93.6278 1887.7
-148.644 -93.123 1887.7
-152.533 -97.8667 1994.67
-152.533 -97.3333 1994.67
-146.544 -88.8073 1829.97
-152.533 -96.2667 1994.67
-152.533 -95.7333 1994.67
-148.644 -90.0946 1887.7
-152.533 -94.6667 1994.67
-152.533 -94.1333 1994.67
-152.533 -93.6 1994.67
-152.533 -93.0667 1994.67
-152.533 -92.5333 1994.67
-152.533 -92 1994.67
-152.533 -91.4667 1994.67
-152.533 -90.9333 1994.67
-152.533 -90.4 1994.67
-152.533 -89.8667 1994.67
-152.533 -89.3333 1994.67
-152.533 -88.8 1994.67
-152.533 -88.2667 1994.67
-152.533 -87.7333 1994.67
-152.533 -87.2 1994.67
-152.533 -86.6667 1994.67
-151.579 -85 1968.42
-151.344 -84.1967 1961.97
-152.533 -85.0667 1994.67
-152.533 -84.5333 1994.67
-152.533 -84 1994.67
-152.533 -83.4667 1994.67
-152.533 -82.9333 1994.67
-152.533 -82.4 1994.67
-152.053 -81.3245 1981.46
-152.533 -81.3333 1994.67
-152.533 -80.8 1994.67
-152.533 -80.2667 1994.67
-152.533 -79.7333 1994.67
-152.533 -79.2 1994.67
-147.788 -73.5202 1864.17
-147.788 -73.0218 1864.17
-147.788 -72.5234 1864.17
-152.533 -77.0667 1994.67
-146.748 -70.4294 1835.58
-152.533 -76 1994.67
-152.533 -75.4667 1994.67
-152.533 -74.9333 1994.67
-147.16 -68.8889 1846.91
-146.544 -67.7676 1829.97
-146.748 -67.4847 1835.58
-147.16 -67.4074 1846.91
-146.954 -66.7077 1841.23
-146.954 -66.2154 1841.23
-147.16 -65.9259 1846.91
-147.16 -65.4321 1846.91
-146.748 -64.5399 1835.58
-146.544 -63.8532 1829.97
-152.533 -69.0667 1994.67
-148 -64.25 1870
-152.533 -68 1994.67
-152.533 -67.4667 1994.67
-152.533 -66.9333 1994.67
-152.533 -66.4 1994.67
-147.788 -61.5576 1864.17
-147.788 -61.0592 1864.17
-147.788 -60.5607 1864.17
-147.788 -60.0623 1864.17
-148 -59.75 1870
-149.521 -60.5751 1911.82
-149.521 -60.0639 1911.82
-149.521 -59.5527 1911.82
-149.521 -59.0415 1911.82
-148 -57.25 1870
-147.578 -56.3975 1858.39
-150.421 -58.2524 1936.57
-150.421 -57.7346 1936.57
-150.421 -57.2168 1936.57
-149.744 -56.1538 1917.95
-149.744 -55.641 1917.95
-149.521 -54.9521 1911.82
-149.299 -54.2675 1905.73
-149.079 -53.5873 1899.68
-149.079 -53.0794 1899.68
-152.533 -55.2 1994.67
-152.533 -54.6667 1994.67
-152.533 -54.1333 1994.67
-152.533 -53.6 1994.67
-152.533 -53.0667 1994.67
-152.533 -52.5333 1994.67
-144.57 -46.2908 1775.67
-144.57 -45.816 1775.67
-144.57 -45.3412 1775.67
-146.544 -46.2385 1829.97
-146.341 -45.6098 1824.39
-145.74 -44.713 1807.85
-147.16 -45.1852 1846.91
-145.542 -43.6145 1802.41
-145.542 -43.1325 1802.41
-145.542 -42.6506 1802.41
-147.788 -43.6137 1864.17
-152.533 -46.1333 1994.67
-152.533 -45.6 1994.67
-152.533 -45.0667 1994.67
-152.533 -44.5333 1994.67
-152.533 -44 1994.67
-145.345 -39.1592 1797
-152.533 -42.9333 1994.67
-148 -39.75 1870
-147.788 -39.1277 1864.17
-147.788 -38.6293 1864.17
-147.788 -38.1308 1864.17
-147.788 -37.6324 1864.17
-147.788 -37.134 1864.17
-147.788 -36.6355 1864.17
-152.533 -38.6667 1994.67
-148 -35.75 1870
-147.788 -35.1402 1864.17
-147.788 -34.6417 1864.17
-148.428 -34.4654 1881.76
-145.939 -32.7273 1813.33
-145.939 -32.2424 1813.33
-152.533 -34.9333 1994.67
-152.533 -34.4 1994.67
-152.533 -33.8667 1994.67
-152.533 -33.3333 1994.67
-152.053 -32.5828 1981.46
-146.544 -29.6024 1829.97
-152.533 -31.7333 1994.67
-152.533 -31.2 1994.67
-152.533 -30.6667 1994.67
-145.939 -27.3939 1813.33
-145.74 -26.8278 1807.85
-145.74 -26.3444 1807.85
-145.542 -25.7831 1802.41
-145.542 -25.3012 1802.41
-145.74 -24.8943 1807.85
-152.533 -26.9333 1994.67
-145.542 -23.8554 1802.41
-145.542 -23.3735 1802.41
-145.542 -22.8916 1802.41
-152.533 -24.8 1994.67
-152.533 -24.2667 1994.67
-152.533 -23.7333 1994.67
-145.542 -20.9639 1802.41
-145.542 -20.4819 1802.41
-150.879 -21.6287 1949.19
-152.533 -21.6 1994.67
-152.533 -21.0667 1994.67
-152.533 -20.5333 1994.67
-145.74 -18.1269 1807.85
-152.533 -19.4667 1994.67
-152.533 -18.9333 1994.67
-152.533 -18.4 1994.67
-152.533 -17.8667 1994.67
-152.533 -17.3333 1994.67
-145.345 -15.1351 1797
-145.542 -14.6988 1802.41
-152.533 -15.7333 1994.67
-145.345 -13.6937 1797
-145.345 -13.2132 1797
-145.345 -12.7327 1797
-145.345 -12.2523 1797
-145.345 -11.7718 1797
-145.345 -11.2913 1797
-145.345 -10.8108 1797
-145.15 -10.2994 1791.62
-145.15 -9.82036 1791.62
-145.15 -9.34132 1791.62
-145.15 -8.86228 1791.62
-152.533 -9.33333 1994.67
-145.15 -7.90419 1791.62
-145.15 -7.42515 1791.62
-145.15 -6.94611 1791.62
-145.15 -6.46707 1791.62
-145.15 -5.98802 1791.62
-145.15 -5.50898 1791.62
-145.15 -5.02994 1791.62
-152.533 -5.06667 1994.67
-152.533 -4.53333 1994.67
-144.189 -3.53982 1765.19
-144.189 -3.06785 1765.19
-145.15 -2.63473 1791.62
-145.15 -2.15569 1791.62
-145.15 -1.67665 1791.62
-145.345 -1.2012 1797
-146.748 -0.736196 1835.58
-145.15 -0.239521 1791.62
-145.15 0.239521 1791.62
-152.533 0.8 1994.67
-145.15 1.1976 1791.62
-145.15 1.67665 1791.62
-145.15 2.15569 1791.62
-145.15 2.63473 1791.62
-152.533 3.46667 1994.67
-145.15 3.59281 1791.62
-145.15 4.07186 1791.62
-152.533 5.06667 1994.67
-152.533 5.6 1994.67
-152.533 6.13333 1994.67
-145.15 5.98802 1791.62
-145.15 6.46707 1791.62
-145.15 6.94611 1791.62
-145.15 7.42515 1791.62
-145.15 7.90419 1791.62
-145.542 8.43373 1802.41
-145.542 8.91566 1802.41
-144.955 9.31343 1786.27
-144.955 9.79104 1786.27
-152.533 11.4667 1994.67
-144.955 10.7463 1786.27
-152.533 12.5333 1994.67
-152.533 13.0667 1994.67
-144.955 12.1791 1786.27
-144.955 12.6567 1786.27
-144.762 13.0952 1780.95
-152.533 15.2 1994.67
-144.955 14.0896 1786.27
-144.955 14.5672 1786.27
-152.533 16.8 1994.67
-152.533 17.3333 1994.67
-150.649 17.4026 1942.86
-144.955 16.4776 1786.27
-152.533 18.9333 1994.67
-152.533 19.4667 1994.67
-144.762 17.8571 1780.95
-144.762 18.3333 1780.95
-144.762 18.8095 1780.95
-152.533 21.6 1994.67
-152.533 22.1333 1994.67
-152.533 22.6667 1994.67
-152.533 23.2 1994.67
-152.533 23.7333 1994.67
-152.533 24.2667 1994.67
-149.968 23.9228 1924.12
-152.533 25.3333 1994.67
-152.533 25.8667 1994.67
-144.762 23.5714 1780.95
-152.533 26.9333 1994.67
-152.533 27.4667 1994.67
-152.533 28 1994.67
-152.533 28.5333 1994.67
-144.57 25.8754 1775.67
-144.57 26.3501 1775.67
-144.57 26.8249 1775.67
-144.57 27.2997 1775.67
-144.57 27.7745 1775.67
-144.57 28.2493 1775.67
-144.57 28.724 1775.67
-144.57 29.1988 1775.67
-144.57 29.6736 1775.67
-152.533 33.8667 1994.67
-152.533 34.4 1994.67
-152.533 34.9333 1994.67
-152.533 35.4667 1994.67
-152.533 36 1994.67
-152.533 36.5333 1994.67
-152.533 37.0667 1994.67
-152.533 37.6 1994.67
-144.379 33.8462 1770.41
-144.379 34.3195 1770.41
-152.533 39.2 1994.67
-144.379 35.2663 1770.41
-144.379 35.7396 1770.41
-152.533 40.8 1994.67
-152.533 41.3333 1994.67
-152.533 41.8667 1994.67
-152.533 42.4 1994.67
-144.379 38.1065 1770.41
-152.533 43.4667 1994.67
-152.533 44 1994.67
-152.533 44.5333 1994.67
-152.533 45.0667 1994.67
-152.533 45.6 1994.67
-152.533 46.1333 1994.67
-152.533 46.6667 1994.67
-146.14 43.0395 1818.84
-150.421 46.343 1936.57
-150.421 46.8608 1936.57
-152.533 48.8 1994.67
-152.533 49.3333 1994.67
-152.533 49.8667 1994.67
-152.533 50.4 1994.67
-152.533 50.9333 1994.67
-152.533 51.4667 1994.67
-152.533 52 1994.67
-152.533 52.5333 1994.67
-152.533 53.0667 1994.67
-152.533 53.6 1994.67
-148.861 51.3924 1893.67
-148.861 51.8987 1893.67
-148.861 52.4051 1893.67
-147.368 51.7647 1852.63
-152.533 56.2667 1994.67
-152.533 56.8 1994.67
-152.533 57.3333 1994.67
-152.533 57.8667 1994.67
-152.533 58.4 1994.67
-152.533 58.9333 1994.67
-149.521 56.9968 1911.82
-152.533 60 1994.67
-152.533 60.5333 1994.67
-152.533 61.0667 1994.67
-152.533 61.6 1994.67
-152.533 62.1333 1994.67
-152.533 62.6667 1994.67
-144.955 56.597 1786.27
-148.861 60.5063 1893.67
-146.748 59.1411 1835.58
-146.748 59.6319 1835.58
-152.533 65.3333 1994.67
-152.533 65.8667 1994.67
-152.533 66.4 1994.67
-152.533 66.9333 1994.67
-152.533 67.4667 1994.67
-152.533 68 1994.67
-152.533 68.5333 1994.67
-152.533 69.0667 1994.67
-152.533 69.6 1994.67
-151.111 68.7582 1955.56
-151.111 69.281 1955.56
-152.533 71.2 1994.67
-152.053 71.2583 1981.46
-152.533 72.2667 1994.67
-152.533 72.8 1994.67
-152.533 73.3333 1994.67
-152.533 73.8667 1994.67
-152.533 74.4 1994.67
-152.533 74.9333 1994.67
-152.533 75.4667 1994.67
-152.533 76 1994.67
-152.533 76.5333 1994.67
-152.533 77.0667 1994.67
-152.533 77.6 1994.67
-152.533 78.1333 1994.67
-152.533 78.6667 1994.67
-152.533 79.2 1994.67
-152.533 79.7333 1994.67
-152.533 80.2667 1994.67
-152.533 80.8 1994.67
-152.533 81.3333 1994.67
-152.533 81.8667 1994.67
-152.533 82.4 1994.67
-152.533 82.9333 1994.67
-152.533 83.4667 1994.67
-152.533 84 1994.67
-152.533 84.5333 1994.67
-152.533 85.0667 1994.67
-152.533 85.6 1994.67
-152.533 86.1333 1994.67
-152.533 86.6667 1994.67
-152.533 87.2 1994.67
-152.533 87.7333 1994.67
-152.533 88.2667 1994.67
-152.533 88.8 1994.67
-152.533 89.3333 1994.67
-152.533 89.8667 1994.67
-152.533 90.4 1994.67
-152.533 90.9333 1994.67
-152.533 91.4667 1994.67
-152.533 92 1994.67
-152.533 92.5333 1994.67
-152.533 93.0667 1994.67
-152.533 93.6 1994.67
-152.533 94.1333 1994.67
-152.533 94.6667 1994.67
-152.533 95.2 1994.67
-152.533 95.7333 1994.67
-152.533 96.2667 1994.67
-152.533 96.8 1994.67
-152.533 97.3333 1994.67
-152.533 97.8667 1994.67
-152.533 98.4 1994.67
-152.533 98.9333 1994.67
-152.533 99.4667 1994.67
-153.067 -100 1994.67
-153.067 -99.4667 1994.67
-149.367 -93.9241 1893.67
-149.148 -93.123 1887.7
-153.067 -97.8667 1994.67
-153.067 -97.3333 1994.67
-153.067 -96.8 1994.67
-153.067 -96.2667 1994.67
-153.067 -95.7333 1994.67
-148.931 -89.8113 1881.76
-153.067 -94.6667 1994.67
-149.148 -89.0852 1887.7
-153.067 -93.6 1994.67
-153.067 -93.0667 1994.67
-153.067 -92.5333 1994.67
-153.067 -92 1994.67
-153.067 -91.4667 1994.67
-153.067 -90.9333 1994.67
-153.067 -90.4 1994.67
-153.067 -89.8667 1994.67
-153.067 -89.3333 1994.67
-153.067 -88.8 1994.67
-153.067 -88.2667 1994.67
-153.067 -87.7333 1994.67
-153.067 -87.2 1994.67
-153.067 -86.6667 1994.67
-151.869 -84.7213 1961.97
-151.634 -83.9216 1955.56
-153.067 -85.0667 1994.67
-153.067 -84.5333 1994.67
-153.067 -84 1994.67
-153.067 -83.4667 1994.67
-153.067 -82.9333 1994.67
-153.067 -82.4 1994.67
-152.824 -81.5947 1988.04
-153.067 -81.3333 1994.67
-153.067 -80.8 1994.67
-153.067 -80.2667 1994.67
-153.067 -79.7333 1994.67
-153.067 -79.2 1994.67
-153.067 -78.6667 1994.67
-148.287 -73.0218 1864.17
-148.287 -72.5234 1864.17
-148.287 -72.0249 1864.17
-148.287 -71.5265 1864.17
-148.287 -71.028 1864.17
-147.864 -70.0929 1852.63
-147.654 -69.3827 1846.91
-147.654 -68.8889 1846.91
-147.034 -67.7676 1829.97
-147.034 -67.2783 1829.97
-147.654 -67.4074 1846.91
-153.067 -72.2667 1994.67
-147.239 -66.0123 1835.58
-147.654 -65.9259 1846.91
-147.446 -65.2308 1841.23
-147.446 -64.7385 1841.23
-147.446 -64.2462 1841.23
-153.067 -69.0667 1994.67
-153.067 -68.5333 1994.67
-153.067 -68 1994.67
-153.067 -67.4667 1994.67
-153.067 -66.9333 1994.67
-153.067 -66.4 1994.67
-148.287 -61.5576 1864.17
-148.287 -61.0592 1864.17
-148.287 -60.5607 1864.17
-149.809 -61.4013 1905.73
-150.482 -61.4791 1924.12
-146.424 -57.4545 1813.33
-150.939 -60.8414 1936.57
-150.939 -60.3236 1936.57
-150.032 -59.0415 1911.82
-150.032 -58.5304 1911.82
-148.5 -56.75 1870
-146.829 -54.878 1824.39
-150.256 -57.1795 1917.95
-150.939 -57.2168 1936.57
-150.482 -56.3344 1924.12
-150.482 -55.8199 1924.12
-150.482 -55.3055 1924.12
-150.032 -54.4409 1911.82
-149.809 -53.758 1905.73
-149.809 -53.2484 1905.73
-153.067 -55.2 1994.67
-153.067 -54.6667 1994.67
-153.067 -54.1333 1994.67
-153.067 -53.6 1994.67
-153.067 -53.0667 1994.67
-153.067 -52.5333 1994.67
-153.067 -52 1994.67
-145.045 -45.816 1775.67
-145.045 -45.3412 1775.67
-145.045 -44.8665 1775.67
-146.829 -45.6098 1824.39
-146.626 -44.9848 1818.84
-146.626 -44.4985 1818.84
-146.224 -43.7462 1807.85
-146.224 -43.2628 1807.85
-146.024 -42.6506 1802.41
-145.826 -42.042 1797
-153.067 -46.1333 1994.67
-153.067 -45.6 1994.67
-153.067 -45.0667 1994.67
-153.067 -44.5333 1994.67
-153.067 -44 1994.67
-153.067 -43.4667 1994.67
-146.024 -38.7952 1802.41
-153.067 -42.4 1994.67
-148.287 -39.1277 1864.17
-145.045 -36.7953 1775.67
-153.067 -40.8 1994.67
-146.424 -36.6061 1813.33
-153.067 -39.7333 1994.67
-153.067 -39.2 1994.67
-153.067 -38.6667 1994.67
-148.715 -35.8621 1875.86
-148.5 -35.25 1870
-148.931 -34.9686 1881.76
-148.287 -34.1433 1864.17
-146.424 -32.7273 1813.33
-146.424 -32.2424 1813.33
-153.067 -34.9333 1994.67
-153.067 -34.4 1994.67
-153.067 -33.8667 1994.67
-153.067 -33.3333 1994.67
-153.067 -32.8 1994.67
-150.71 -31.2258 1930.32
-153.067 -31.7333 1994.67
-153.067 -31.2 1994.67
-153.067 -30.6667 1994.67
-146.224 -27.3112 1807.85
-146.224 -26.8278 1807.85
-146.224 -26.3444 1807.85
-146.224 -25.861 1807.85
-146.224 -25.3776 1807.85
-146.224 -24.8943 1807.85
-146.224 -24.4109 1807.85
-146.224 -23.9275 1807.85
-146.024 -23.3735 1802.41
-146.024 -22.8916 1802.41
-146.024 -22.4096 1802.41
-146.024 -21.9277 1802.41
-146.024 -21.4458 1802.41
-146.024 -20.9639 1802.41
-153.067 -22.6667 1994.67
-153.067 -22.1333 1994.67
-153.067 -21.6 1994.67
-153.067 -21.0667 1994.67
-146.024 -18.5542 1802.41
-146.224 -18.1269 1807.85
-146.024 -17.5904 1802.41
-153.067 -18.9333 1994.67
-151.869 -18.0984 1961.97
-153.067 -17.8667 1994.67
-153.067 -17.3333 1994.67
-153.067 -16.8 1994.67
-153.067 -16.2667 1994.67
-145.433 -14.0896 1786.27
-145.826 -13.6937 1797
-145.826 -13.2132 1797
-145.826 -12.7327 1797
-145.826 -12.2523 1797
-145.826 -11.7718 1797
-145.826 -11.2913 1797
-145.826 -10.8108 1797
-145.826 -10.3303 1797
-153.067 -10.9333 1994.67
-153.067 -10.4 1994.67
-145.629 -8.86228 1791.62
-145.629 -8.38323 1791.62
-145.629 -7.90419 1791.62
-145.629 -7.42515 1791.62
-145.629 -6.94611 1791.62
-145.629 -6.46707 1791.62
-145.629 -5.98802 1791.62
-145.629 -5.50898 1791.62
-145.629 -5.02994 1791.62
-145.629 -4.5509 1791.62
-145.629 -4.07186 1791.62
-145.629 -3.59281 1791.62
-145.629 -3.11377 1791.62
-145.629 -2.63473 1791.62
-145.629 -2.15569 1791.62
-145.629 -1.67665 1791.62
-145.826 -1.2012 1797
-145.629 -0.718563 1791.62
-145.629 -0.239521 1791.62
-145.629 0.239521 1791.62
-145.629 0.718563 1791.62
-145.629 1.1976 1791.62
-145.629 1.67665 1791.62
-145.629 2.15569 1791.62
-145.629 2.63473 1791.62
-145.629 3.11377 1791.62
-145.629 3.59281 1791.62
-145.629 4.07186 1791.62
-145.629 4.5509 1791.62
-145.433 5.01493 1786.27
-145.629 5.50898 1791.62
-145.629 5.98802 1791.62
-145.629 6.46707 1791.62
-145.629 6.94611 1791.62
-145.629 7.42515 1791.62
-145.629 7.90419 1791.62
-153.067 9.33333 1994.67
-145.629 8.86228 1791.62
-145.433 9.31343 1786.27
-145.433 9.79104 1786.27
-145.433 10.2687 1786.27
-151.401 11.7264 1949.19
-153.067 12.5333 1994.67
-145.433 11.7015 1786.27
-145.433 12.1791 1786.27
-145.238 12.619 1780.95
-145.238 13.0952 1780.95
-153.067 15.2 1994.67
-145.238 14.0476 1780.95
-145.238 14.5238 1780.95
-153.067 16.8 1994.67
-153.067 17.3333 1994.67
-153.067 17.8667 1994.67
-145.433 16.4776 1786.27
-153.067 18.9333 1994.67
-145.238 17.381 1780.95
-145.238 17.8571 1780.95
-145.238 18.3333 1780.95
-152.583 20.9272 1981.46
-153.067 21.6 1994.67
-153.067 22.1333 1994.67
-145.045 20.178 1775.67
-153.067 23.2 1994.67
-153.067 23.7333 1994.67
-153.067 24.2667 1994.67
-145.238 22.1429 1780.95
-145.238 22.619 1780.95
-145.238 23.0952 1780.95
-145.045 23.5015 1775.67
-145.045 23.9763 1775.67
-145.045 24.451 1775.67
-153.067 28 1994.67
-145.045 25.4006 1775.67
-145.045 25.8754 1775.67
-145.045 26.3501 1775.67
-145.045 26.8249 1775.67
-145.045 27.2997 1775.67
-145.045 27.7745 1775.67
-145.045 28.2493 1775.67
-145.045 28.724 1775.67
-145.045 29.1988 1775.67
-145.045 29.6736 1775.67
-153.067 33.8667 1994.67
-153.067 34.4 1994.67
-153.067 34.9333 1994.67
-153.067 35.4667 1994.67
-153.067 36 1994.67
-153.067 36.5333 1994.67
-153.067 37.0667 1994.67
-153.067 37.6 1994.67
-144.852 33.8462 1770.41
-144.852 34.3195 1770.41
-144.852 34.7929 1770.41
-144.852 35.2663 1770.41
-144.852 35.7396 1770.41
-153.067 40.8 1994.67
-153.067 41.3333 1994.67
-153.067 41.8667 1994.67
-153.067 42.4 1994.67
-153.067 42.9333 1994.67
-153.067 43.4667 1994.67
-153.067 44 1994.67
-153.067 44.5333 1994.67
-153.067 45.0667 1994.67
-153.067 45.6 1994.67
-145.238 41.1905 1780.95
-153.067 46.6667 1994.67
-153.067 47.2 1994.67
-151.169 46.4935 1942.86
-151.169 47.013 1942.86
-153.067 48.8 1994.67
-153.067 49.3333 1994.67
-153.067 49.8667 1994.67
-153.067 50.4 1994.67
-153.067 50.9333 1994.67
-153.067 51.4667 1994.67
-153.067 52 1994.67
-148.287 49.0966 1864.17
-153.067 53.0667 1994.67
-150.71 51.871 1930.32
-153.067 54.1333 1994.67
-149.367 51.8987 1893.67
-149.367 52.4051 1893.67
-153.067 55.7333 1994.67
-153.067 56.2667 1994.67
-153.067 56.8 1994.67
-153.067 57.3333 1994.67
-153.067 57.8667 1994.67
-153.067 58.4 1994.67
-153.067 58.9333 1994.67
-153.067 59.4667 1994.67
-153.067 60 1994.67
-153.067 60.5333 1994.67
-153.067 61.0667 1994.67
-153.067 61.6 1994.67
-153.067 62.1333 1994.67
-153.067 62.6667 1994.67
-153.067 63.2 1994.67
-153.067 63.7333 1994.67
-148.075 59.8758 1858.39
-153.067 64.8 1994.67
-153.067 65.3333 1994.67
-153.067 65.8667 1994.67
-153.067 66.4 1994.67
-153.067 66.9333 1994.67
-153.067 67.4667 1994.67
-153.067 68 1994.67
-153.067 68.5333 1994.67
-153.067 69.0667 1994.67
-152.824 69.3688 1988.04
-151.634 68.7582 1955.56
-151.634 69.281 1955.56
-153.067 71.2 1994.67
-152.583 71.2583 1981.46
-153.067 72.2667 1994.67
-153.067 72.8 1994.67
-153.067 73.3333 1994.67
-153.067 73.8667 1994.67
-153.067 74.4 1994.67
-153.067 74.9333 1994.67
-153.067 75.4667 1994.67
-153.067 76 1994.67
-153.067 76.5333 1994.67
-153.067 77.0667 1994.67
-153.067 77.6 1994.67
-153.067 78.1333 1994.67
-153.067 78.6667 1994.67
-153.067 79.2 1994.67
-153.067 79.7333 1994.67
-153.067 80.2667 1994.67
-153.067 80.8 1994.67
-153.067 81.3333 1994.67
-153.067 81.8667 1994.67
-153.067 82.4 1994.67
-153.067 82.9333 1994.67
-153.067 83.4667 1994.67
-153.067 84 1994.67
-153.067 84.5333 1994.67
-153.067 85.0667 1994.67
-153.067 85.6 1994.67
-153.067 86.1333 1994.67
-153.067 86.6667 1994.67
-153.067 87.2 1994.67
-153.067 87.7333 1994.67
-153.067 88.2667 1994.67
-153.067 88.8 1994.67
-153.067 89.3333 1994.67
-153.067 89.8667 1994.67
-153.067 90.4 1994.67
-153.067 90.9333 1994.67
-153.067 91.4667 1994.67
-153.067 92 1994.67
-153.067 92.5333 1994.67
-153.067 93.0667 1994.67
-153.067 93.6 1994.67
-153.067 94.1333 1994.67
-153.067 94.6667 1994.67
-153.067 95.2 1994.67
-153.067 95.7333 1994.67
-153.067 96.2667 1994.67
-153.067 96.8 1994.67
-153.067 97.3333 1994.67
-153.067 97.8667 1994.67
-153.067 98.4 1994.67
-153.067 98.9333 1994.67
-153.067 99.4667 1994.67
-153.6 -100 1994.67
-149.873 -94.4304 1893.67
-149.653 -93.6278 1887.7
-149.653 -93.123 1887.7
-149.653 -92.6183 1887.7
-153.6 -97.3333 1994.67
-153.6 -96.8 1994.67
-153.6 -96.2667 1994.67
-153.6 -95.7333 1994.67
-153.6 -95.2 1994.67
-153.6 -94.6667 1994.67
-149.653 -89.0852 1887.7
-149.653 -88.5804 1887.7
-153.6 -93.0667 1994.67
-153.6 -92.5333 1994.67
-153.6 -92 1994.67
-153.6 -91.4667 1994.67
-153.6 -90.9333 1994.67
-153.6 -90.4 1994.67
-153.6 -89.8667 1994.67
-153.6 -89.3333 1994.67
-145.91 -79.5224 1786.27
-146.108 -79.2814 1791.62
-153.6 -87.7333 1994.67
-153.6 -87.2 1994.67
-153.6 -86.6667 1994.67
-153.6 -86.1333 1994.67
-153.6 -85.6 1994.67
-153.6 -85.0667 1994.67
-153.6 -84.5333 1994.67
-153.6 -84 1994.67
-153.6 -83.4667 1994.67
-153.6 -82.9333 1994.67
-153.6 -82.4 1994.67
-153.6 -81.8667 1994.67
-153.6 -81.3333 1994.67
-153.6 -80.8 1994.67
-153.6 -80.2667 1994.67
-153.6 -79.7333 1994.67
-153.6 -79.2 1994.67
-153.6 -78.6667 1994.67
-153.6 -78.1333 1994.67
-148.785 -72.5234 1864.17
-148.785 -72.0249 1864.17
-148.785 -71.5265 1864.17
-148.785 -71.028 1864.17
-153.6 -75.4667 1994.67
-148.359 -69.5975 1852.63
-147.938 -68.6769 1841.23
-147.938 -68.1846 1841.23
-148.148 -67.9012 1846.91
-153.6 -72.8 1994.67
-153.6 -72.2667 1994.67
-147.523 -65.8104 1829.97
-147.73 -65.5215 1835.58
-147.73 -65.0307 1835.58
-148.148 -64.9383 1846.91
-148.148 -64.4444 1846.91
-153.6 -69.0667 1994.67
-153.6 -68.5333 1994.67
-153.6 -68 1994.67
-153.6 -67.4667 1994.67
-153.6 -66.9333 1994.67
-153.6 -66.4 1994.67
-148.785 -61.5576 1864.17
-148.785 -61.0592 1864.17
-150.318 -61.9108 1905.73
-150.318 -61.4013 1905.73
-146.909 -57.9394 1813.33
-153.6 -63.2 1994.67
-150.997 -60.4502 1924.12
-151.226 -60.129 1930.32
-149.653 -58.2965 1887.7
-151.226 -59.0968 1930.32
-149 -56.75 1870
-147.317 -54.878 1824.39
-148.571 -55.4037 1858.39
-151.922 -57.5896 1949.19
-151.456 -56.699 1936.57
-153.6 -57.8667 1994.67
-150.997 -55.3055 1924.12
-150.769 -54.6154 1917.95
-150.543 -53.9297 1911.82
-150.543 -53.4185 1911.82
-150.318 -52.7389 1905.73
-153.6 -54.6667 1994.67
-153.6 -54.1333 1994.67
-153.6 -53.6 1994.67
-153.6 -53.0667 1994.67
-153.6 -52.5333 1994.67
-153.6 -52 1994.67
-153.6 -51.4667 1994.67
-145.325 -45.2071 1770.41
-145.325 -44.7337 1770.41
-145.519 -44.3917 1775.67
-147.317 -45.122 1824.39
-147.317 -44.6341 1824.39
-146.707 -43.7462 1807.85
-146.707 -43.2628 1807.85
-146.707 -42.7795 1807.85
-146.707 -42.2961 1807.85
-146.506 -41.6867 1802.41
-148.785 -42.6168 1864.17
-147.73 -41.4724 1835.58
-153.6 -44.5333 1994.67
-153.6 -44 1994.67
-153.6 -43.4667 1994.67
-153.6 -42.9333 1994.67
-153.6 -42.4 1994.67
-153.6 -41.8667 1994.67
-145.325 -36.6864 1770.41
-147.523 -37.4312 1829.97
-153.6 -40.2667 1994.67
-153.6 -39.7333 1994.67
-149.434 -36.9811 1881.76
-149.434 -36.478 1881.76
-149.434 -35.9748 1881.76
-149.434 -35.4717 1881.76
-149.434 -34.9686 1881.76
-149.434 -34.4654 1881.76
-146.909 -32.7273 1813.33
-146.909 -32.2424 1813.33
-146.909 -31.7576 1813.33
-153.6 -34.4 1994.67
-153.6 -33.8667 1994.67
-145.325 -29.5858 1770.41
-153.6 -32.8 1994.67
-153.6 -32.2667 1994.67
-153.6 -31.7333 1994.67
-146.707 -28.2779 1807.85
-146.707 -27.7946 1807.85
-146.707 -27.3112 1807.85
-146.707 -26.8278 1807.85
-146.707 -26.3444 1807.85
-146.707 -25.861 1807.85
-146.707 -25.3776 1807.85
-146.707 -24.8943 1807.85
-146.707 -24.4109 1807.85
-146.707 -23.9275 1807.85
-153.6 -25.8667 1994.67
-153.6 -25.3333 1994.67
-153.6 -24.8 1994.67
-146.506 -21.9277 1802.41
-146.506 -21.4458 1802.41
-146.506 -20.9639 1802.41
-153.6 -22.6667 1994.67
-153.6 -22.1333 1994.67
-146.506 -19.5181 1802.41
-153.6 -21.0667 1994.67
-146.506 -18.5542 1802.41
-146.707 -18.1269 1807.85
-153.6 -19.4667 1994.67
-153.6 -18.9333 1994.67
-146.506 -16.6265 1802.41
-146.506 -16.1446 1802.41
-153.6 -17.3333 1994.67
-153.6 -16.8 1994.67
-153.6 -16.2667 1994.67
-153.6 -15.7333 1994.67
-146.306 -13.6937 1797
-146.306 -13.2132 1797
-146.306 -12.7327 1797
-146.306 -12.2523 1797
-146.306 -11.7718 1797
-146.306 -11.2913 1797
-146.306 -10.8108 1797
-146.306 -10.3303 1797
-153.6 -10.9333 1994.67
-153.6 -10.4 1994.67
-153.6 -9.86667 1994.67
-146.108 -8.38323 1791.62
-146.108 -7.90419 1791.62
-146.306 -7.44745 1797
-146.108 -6.94611 1791.62
-153.6 -7.2 1994.67
-146.108 -5.98802 1791.62
-146.108 -5.50898 1791.62
-145.133 -4.95575 1765.19
-145.133 -4.48378 1765.19
-146.108 -4.07186 1791.62
-146.108 -3.59281 1791.62
-146.108 -3.11377 1791.62
-146.108 -2.63473 1791.62
-146.108 -2.15569 1791.62
-146.108 -1.67665 1791.62
-146.306 -1.2012 1797
-146.108 -0.718563 1791.62
-146.108 -0.239521 1791.62
-146.108 0.239521 1791.62
-146.108 0.718563 1791.62
-146.108 1.1976 1791.62
-146.108 1.67665 1791.62
-146.108 2.15569 1791.62
-153.6 2.93333 1994.67
-146.108 3.11377 1791.62
-153.6 4 1994.67
-146.108 4.07186 1791.62
-146.108 4.5509 1791.62
-146.108 5.02994 1791.62
-145.91 5.49254 1786.27
-152.871 6.60066 1974.92
-153.6 7.2 1994.67
-153.6 7.73333 1994.67
-145.91 7.40299 1786.27
-153.6 8.8 1994.67
-153.6 9.33333 1994.67
-153.6 9.86667 1994.67
-145.91 9.31343 1786.27
-145.91 9.79104 1786.27
-145.91 10.2687 1786.27
-145.91 10.7463 1786.27
-145.91 11.2239 1786.27
-145.91 11.7015 1786.27
-145.91 12.1791 1786.27
-145.91 12.6567 1786.27
-145.714 13.0952 1780.95
-145.714 13.5714 1780.95
-145.714 14.0476 1780.95
-145.714 14.5238 1780.95
-145.714 15 1780.95
-145.714 15.4762 1780.95
-153.6 17.8667 1994.67
-145.714 16.4286 1780.95
-145.714 16.9048 1780.95
-153.6 19.4667 1994.67
-145.714 17.8571 1780.95
-145.714 18.3333 1780.95
-153.113 20.9272 1981.46
-153.6 21.6 1994.67
-153.6 22.1333 1994.67
-153.6 22.6667 1994.67
-153.6 23.2 1994.67
-153.6 23.7333 1994.67
-153.6 24.2667 1994.67
-145.714 22.1429 1780.95
-145.714 22.619 1780.95
-145.714 23.0952 1780.95
-153.6 26.4 1994.67
-153.6 26.9333 1994.67
-153.6 27.4667 1994.67
-145.519 24.9258 1775.67
-145.519 25.4006 1775.67
-145.519 25.8754 1775.67
-145.519 26.3501 1775.67
-145.519 26.8249 1775.67
-145.519 27.2997 1775.67
-153.6 31.2 1994.67
-153.6 31.7333 1994.67
-153.6 32.2667 1994.67
-145.519 29.1988 1775.67
-145.519 29.6736 1775.67
-153.6 33.8667 1994.67
-153.6 34.4 1994.67
-153.6 34.9333 1994.67
-153.6 35.4667 1994.67
-153.6 36 1994.67
-147.938 33.7231 1841.23
-145.519 32.997 1775.67
-145.519 33.4718 1775.67
-145.519 33.9466 1775.67
-145.325 34.3195 1770.41
-145.325 34.7929 1770.41
-145.325 35.2663 1770.41
-153.6 40.2667 1994.67
-153.6 40.8 1994.67
-153.6 41.3333 1994.67
-145.325 37.1598 1770.41
-145.519 37.7448 1775.67
-153.6 42.9333 1994.67
-153.6 43.4667 1994.67
-145.325 39.0533 1770.41
-145.133 39.41 1765.19
-153.6 45.0667 1994.67
-153.6 45.6 1994.67
-145.714 41.1905 1780.95
-153.6 46.6667 1994.67
-153.6 47.2 1994.67
-151.226 46.1935 1930.32
-151.226 46.7097 1930.32
-151.226 47.2258 1930.32
-146.707 44.713 1807.85
-153.6 49.8667 1994.67
-153.6 50.4 1994.67
-153.6 50.9333 1994.67
-153.6 51.4667 1994.67
-153.6 52 1994.67
-153.6 52.5333 1994.67
-153.6 53.0667 1994.67
-153.6 53.6 1994.67
-153.6 54.1333 1994.67
-153.6 54.6667 1994.67
-153.6 55.2 1994.67
-153.6 55.7333 1994.67
-146.909 51.1515 1813.33
-153.6 56.8 1994.67
-153.6 57.3333 1994.67
-153.6 57.8667 1994.67
-153.6 58.4 1994.67
-153.6 58.9333 1994.67
-153.6 59.4667 1994.67
-153.6 60 1994.67
-153.6 60.5333 1994.67
-153.6 61.0667 1994.67
-148.571 57.3913 1858.39
-148.785 58.0685 1864.17
-150.318 59.8726 1905.73
-153.6 63.2 1994.67
-153.6 63.7333 1994.67
-148.571 59.8758 1858.39
-153.6 64.8 1994.67
-153.6 65.3333 1994.67
-149.653 62.3344 1887.7
-153.6 66.4 1994.67
-153.6 66.9333 1994.67
-153.6 67.4667 1994.67
-153.6 68 1994.67
-153.6 68.5333 1994.67
-153.6 69.0667 1994.67
-153.6 69.6 1994.67
-151.922 68.5342 1949.19
-151.922 69.0554 1949.19
-150.769 68.4615 1917.95
-150.769 68.9744 1917.95
-153.6 72.2667 1994.67
-153.6 72.8 1994.67
-153.6 73.3333 1994.67
-153.6 73.8667 1994.67
-153.6 74.4 1994.67
-153.6 74.9333 1994.67
-153.6 75.4667 1994.67
-153.6 76 1994.67
-153.6 76.5333 1994.67
-153.6 77.0667 1994.67
-153.6 77.6 1994.67
-153.6 78.1333 1994.67
-153.6 78.6667 1994.67
-153.6 79.2 1994.67
-153.6 79.7333 1994.67
-153.6 80.2667 1994.67
-153.6 80.8 1994.67
-153.6 81.3333 1994.67
-153.6 81.8667 1994.67
-153.6 82.4 1994.67
-153.6 82.9333 1994.67
-153.6 83.4667 1994.67
-153.6 84 1994.67
-153.6 84.5333 1994.67
-153.6 85.0667 1994.67
-153.6 85.6 1994.67
-153.6 86.1333 1994.67
-153.6 86.6667 1994.67
-153.6 87.2 1994.67
-153.6 87.7333 1994.67
-153.6 88.2667 1994.67
-153.6 88.8 1994.67
-153.6 89.3333 1994.67
-153.6 89.8667 1994.67
-153.6 90.4 1994.67
-153.6 90.9333 1994.67
-153.6 91.4667 1994.67
-153.6 92 1994.67
-153.6 92.5333 1994.67
-153.6 93.0667 1994.67
-153.6 93.6 1994.67
-153.6 94.1333 1994.67
-153.6 94.6667 1994.67
-153.6 95.2 1994.67
-153.6 95.7333 1994.67
-153.6 96.2667 1994.67
-153.6 96.8 1994.67
-153.6 97.3333 1994.67
-153.6 97.8667 1994.67
-145.325 87.3373 1770.41
-153.6 98.9333 1994.67
-153.6 99.4667 1994.67
-150.38 -94.9367 1893.67
-154.133 -99.4667 1994.67
-150.158 -93.6278 1887.7
-150.158 -93.123 1887.7
-150.158 -92.6183 1887.7
-154.133 -97.3333 1994.67
-154.133 -96.8 1994.67
-148.854 -89.4118 1852.63
-154.133 -95.7333 1994.67
-149.937 -89.8113 1881.76
-149.937 -89.3082 1881.76
-154.133 -94.1333 1994.67
-154.133 -93.6 1994.67
-154.133 -93.0667 1994.67
-154.133 -92.5333 1994.67
-154.133 -92 1994.67
-146.587 -82.1557 1791.62
-149.283 -84.9844 1864.17
-154.133 -90.4 1994.67
-154.133 -89.8667 1994.67
-154.133 -89.3333 1994.67
-154.133 -88.8 1994.67
-146.587 -79.2814 1791.62
-154.133 -87.7333 1994.67
-154.133 -87.2 1994.67
-154.133 -86.6667 1994.67
-154.133 -86.1333 1994.67
-146.988 -77.3494 1802.41
-154.133 -85.0667 1994.67
-154.133 -84.5333 1994.67
-154.133 -84 1994.67
-154.133 -83.4667 1994.67
-154.133 -82.9333 1994.67
-154.133 -82.4 1994.67
-148.221 -75.3374 1835.58
-154.133 -81.3333 1994.67
-154.133 -80.8 1994.67
-154.133 -80.2667 1994.67
-154.133 -79.7333 1994.67
-154.133 -79.2 1994.67
-154.133 -78.6667 1994.67
-154.133 -78.1333 1994.67
-154.133 -77.6 1994.67
-154.133 -77.0667 1994.67
-149.283 -71.5265 1864.17
-149.283 -71.028 1864.17
-154.133 -75.4667 1994.67
-154.133 -74.9333 1994.67
-148.431 -68.6769 1841.23
-154.133 -73.8667 1994.67
-154.133 -73.3333 1994.67
-154.133 -72.8 1994.67
-154.133 -72.2667 1994.67
-148.221 -66.0123 1835.58
-148.221 -65.5215 1835.58
-148.012 -64.8318 1829.97
-148.854 -65.1393 1852.63
-148.854 -64.644 1852.63
-154.133 -69.0667 1994.67
-154.133 -68.5333 1994.67
-154.133 -68 1994.67
-154.133 -67.4667 1994.67
-154.133 -66.9333 1994.67
-154.133 -66.4 1994.67
-149.283 -61.5576 1864.17
-149.283 -61.0592 1864.17
-151.974 -62.9126 1936.57
-151.282 -61.7949 1917.95
-151.282 -61.2821 1917.95
-147.394 -57.4545 1813.33
-154.133 -62.6667 1994.67
-151.511 -59.9357 1924.12
-150.828 -58.8535 1905.73
-151.742 -59.0968 1930.32
-150.158 -57.2871 1887.7
-151.511 -57.8778 1924.12
-149.283 -55.5763 1864.17
-149.068 -54.9068 1858.39
-149.283 -54.5794 1864.17
-151.974 -56.1812 1936.57
-151.974 -55.6634 1936.57
-151.511 -54.791 1924.12
-151.511 -54.2765 1924.12
-151.282 -53.5897 1917.95
-151.054 -52.9073 1911.82
-150.828 -52.2293 1905.73
-154.133 -54.1333 1994.67
-154.133 -53.6 1994.67
-154.133 -53.0667 1994.67
-154.133 -52.5333 1994.67
-154.133 -52 1994.67
-154.133 -51.4667 1994.67
-148.854 -47.3065 1852.63
-148.854 -46.8111 1852.63
-145.994 -44.3917 1775.67
-145.994 -43.9169 1775.67
-147.805 -44.6341 1824.39
-147.805 -44.1463 1824.39
-147.19 -43.2628 1807.85
-147.19 -42.7795 1807.85
-147.19 -42.2961 1807.85
-147.19 -41.8127 1807.85
-147.19 -41.3293 1807.85
-147.19 -40.8459 1807.85
-148.221 -40.9816 1835.58
-154.133 -44 1994.67
-154.133 -43.4667 1994.67
-149.068 -40 1858.39
-146.787 -38.1982 1797
-154.133 -41.8667 1994.67
-154.133 -41.3333 1994.67
-154.133 -40.8 1994.67
-154.133 -40.2667 1994.67
-154.133 -39.7333 1994.67
-154.133 -39.2 1994.67
-154.133 -38.6667 1994.67
-150.38 -36.2025 1893.67
-150.158 -35.5836 1887.7
-149.937 -34.9686 1881.76
-150.158 -34.5741 1887.7
-148.854 -33.4365 1852.63
-154.133 -35.4667 1994.67
-147.394 -31.7576 1813.33
-147.394 -31.2727 1813.33
-154.133 -33.8667 1994.67
-154.133 -33.3333 1994.67
-154.133 -32.8 1994.67
-154.133 -32.2667 1994.67
-147.19 -28.7613 1807.85
-147.19 -28.2779 1807.85
-147.19 -27.7946 1807.85
-146.988 -27.2289 1802.41
-146.988 -26.747 1802.41
-146.988 -26.2651 1802.41
-153.399 -28.2508 1974.92
-146.988 -25.3012 1802.41
-147.19 -24.8943 1807.85
-154.133 -26.9333 1994.67
-147.19 -23.9275 1807.85
-147.19 -23.4441 1807.85
-147.19 -22.9607 1807.85
-146.988 -22.4096 1802.41
-146.988 -21.9277 1802.41
-146.988 -21.4458 1802.41
-146.988 -20.9639 1802.41
-146.988 -20.4819 1802.41
-154.133 -22.1333 1994.67
-146.988 -19.5181 1802.41
-146.988 -19.0361 1802.41
-146.988 -18.5542 1802.41
-146.988 -18.0723 1802.41
-146.988 -17.5904 1802.41
-154.133 -18.9333 1994.67
-146.988 -16.6265 1802.41
-146.988 -16.1446 1802.41
-154.133 -17.3333 1994.67
-154.133 -16.8 1994.67
-154.133 -16.2667 1994.67
-154.133 -15.7333 1994.67
-146.787 -13.6937 1797
-146.787 -13.2132 1797
-146.787 -12.7327 1797
-154.133 -13.6 1994.67
-154.133 -13.0667 1994.67
-146.787 -11.2913 1797
-146.787 -10.8108 1797
-146.787 -10.3303 1797
-147.805 -10 1824.39
-147.805 -9.5122 1824.39
-154.133 -9.86667 1994.67
-146.787 -8.40841 1797
-146.787 -7.92793 1797
-146.787 -7.44745 1797
-146.787 -6.96697 1797
-146.787 -6.48649 1797
-146.787 -6.00601 1797
-146.587 -5.50898 1791.62
-146.787 -5.04505 1797
-146.787 -4.56456 1797
-146.787 -4.08408 1797
-146.787 -3.6036 1797
-146.587 -3.11377 1791.62
-146.587 -2.63473 1791.62
-146.587 -2.15569 1791.62
-146.787 -1.68168 1797
-146.787 -1.2012 1797
-146.587 -0.718563 1791.62
-146.587 -0.239521 1791.62
-146.587 0.239521 1791.62
-154.133 0.8 1994.67
-149.937 1.25786 1881.76
-146.587 1.67665 1791.62
-146.587 2.15569 1791.62
-154.133 2.93333 1994.67
-146.587 3.11377 1791.62
-154.133 4 1994.67
-146.587 4.07186 1791.62
-146.587 4.5509 1791.62
-154.133 5.6 1994.67
-146.388 5.49254 1786.27
-154.133 6.66667 1994.67
-146.388 6.44776 1786.27
-146.388 6.92537 1786.27
-146.388 7.40299 1786.27
-146.388 7.8806 1786.27
-146.388 8.35821 1786.27
-154.133 9.86667 1994.67
-146.388 9.31343 1786.27
-146.388 9.79104 1786.27
-146.388 10.2687 1786.27
-154.133 12 1994.67
-146.388 11.2239 1786.27
-146.388 11.7015 1786.27
-146.388 12.1791 1786.27
-146.388 12.6567 1786.27
-146.388 13.1343 1786.27
-154.133 15.2 1994.67
-154.133 15.7333 1994.67
-146.388 14.5672 1786.27
-154.133 16.8 1994.67
-154.133 17.3333 1994.67
-154.133 17.8667 1994.67
-154.133 18.4 1994.67
-154.133 18.9333 1994.67
-153.399 19.2739 1974.92
-154.133 20 1994.67
-146.19 18.3333 1780.95
-146.19 18.8095 1780.95
-154.133 21.6 1994.67
-154.133 22.1333 1994.67
-154.133 22.6667 1994.67
-154.133 23.2 1994.67
-154.133 23.7333 1994.67
-154.133 24.2667 1994.67
-154.133 24.8 1994.67
-154.133 25.3333 1994.67
-146.19 23.0952 1780.95
-154.133 26.4 1994.67
-151.282 25.8974 1917.95
-154.133 27.4667 1994.67
-145.994 24.9258 1775.67
-145.994 25.4006 1775.67
-145.994 25.8754 1775.67
-145.994 26.3501 1775.67
-145.994 26.8249 1775.67
-145.994 27.2997 1775.67
-149.068 29.0683 1858.39
-154.133 31.7333 1994.67
-145.799 28.6391 1770.41
-154.133 32.8 1994.67
-154.133 33.3333 1994.67
-154.133 33.8667 1994.67
-154.133 34.4 1994.67
-154.133 34.9333 1994.67
-154.133 35.4667 1994.67
-145.994 32.0475 1775.67
-145.994 32.5223 1775.67
-154.133 37.0667 1994.67
-154.133 37.6 1994.67
-154.133 38.1333 1994.67
-145.994 34.4214 1775.67
-154.133 39.2 1994.67
-154.133 39.7333 1994.67
-154.133 40.2667 1994.67
-154.133 40.8 1994.67
-154.133 41.3333 1994.67
-145.799 37.1598 1770.41
-154.133 42.4 1994.67
-154.133 42.9333 1994.67
-154.133 43.4667 1994.67
-154.133 44 1994.67
-145.605 39.41 1765.19
-154.133 45.0667 1994.67
-154.133 45.6 1994.67
-154.133 46.1333 1994.67
-154.133 46.6667 1994.67
-154.133 47.2 1994.67
-154.133 47.7333 1994.67
-146.587 43.3533 1791.62
-152.918 48 1961.97
-154.133 49.3333 1994.67
-154.133 49.8667 1994.67
-150.603 48 1899.68
-154.133 50.9333 1994.67
-147.599 46.9301 1818.84
-154.133 52 1994.67
-154.133 52.5333 1994.67
-154.133 53.0667 1994.67
-154.133 53.6 1994.67
-154.133 54.1333 1994.67
-154.133 54.6667 1994.67
-154.133 55.2 1994.67
-154.133 55.7333 1994.67
-147.394 51.1515 1813.33
-154.133 56.8 1994.67
-149.5 53.75 1870
-154.133 57.8667 1994.67
-154.133 58.4 1994.67
-154.133 58.9333 1994.67
-154.133 59.4667 1994.67
-154.133 60 1994.67
-154.133 60.5333 1994.67
-154.133 61.0667 1994.67
-149.068 57.3913 1858.39
-149.068 57.8882 1858.39
-150.603 59.6825 1899.68
-154.133 63.2 1994.67
-149.068 59.3789 1858.39
-149.068 59.8758 1858.39
-148.854 60.1858 1852.63
-148.854 60.6811 1852.63
-154.133 65.8667 1994.67
-154.133 66.4 1994.67
-154.133 66.9333 1994.67
-154.133 67.4667 1994.67
-154.133 68 1994.67
-154.133 68.5333 1994.67
-154.133 69.0667 1994.67
-153.158 68.6842 1968.42
-151.974 68.0906 1936.57
-154.133 70.6667 1994.67
-151.282 68.4615 1917.95
-151.282 68.9744 1917.95
-154.133 72.2667 1994.67
-154.133 72.8 1994.67
-154.133 73.3333 1994.67
-154.133 73.8667 1994.67
-154.133 74.4 1994.67
-154.133 74.9333 1994.67
-154.133 75.4667 1994.67
-154.133 76 1994.67
-154.133 76.5333 1994.67
-154.133 77.0667 1994.67
-154.133 77.6 1994.67
-154.133 78.1333 1994.67
-154.133 78.6667 1994.67
-154.133 79.2 1994.67
-154.133 79.7333 1994.67
-154.133 80.2667 1994.67
-154.133 80.8 1994.67
-154.133 81.3333 1994.67
-154.133 81.8667 1994.67
-154.133 82.4 1994.67
-154.133 82.9333 1994.67
-154.133 83.4667 1994.67
-154.133 84 1994.67
-154.133 84.5333 1994.67
-154.133 85.0667 1994.67
-154.133 85.6 1994.67
-154.133 86.1333 1994.67
-154.133 86.6667 1994.67
-154.133 87.2 1994.67
-154.133 87.7333 1994.67
-154.133 88.2667 1994.67
-154.133 88.8 1994.67
-154.133 89.3333 1994.67
-154.133 89.8667 1994.67
-154.133 90.4 1994.67
-154.133 90.9333 1994.67
-154.133 91.4667 1994.67
-154.133 92 1994.67
-154.133 92.5333 1994.67
-154.133 93.0667 1994.67
-154.133 93.6 1994.67
-154.133 94.1333 1994.67
-154.133 94.6667 1994.67
-154.133 95.2 1994.67
-154.133 95.7333 1994.67
-154.133 96.2667 1994.67
-154.133 96.8 1994.67
-154.133 97.3333 1994.67
-154.133 97.8667 1994.67
-154.133 98.4 1994.67
-154.133 98.9333 1994.67
-154.133 99.4667 1994.67
-154.667 -100 1994.67
-150.662 -94.1325 1887.7
-150.662 -93.6278 1887.7
-150.662 -93.123 1887.7
-150.662 -92.6183 1887.7
-154.667 -97.3333 1994.67
-154.667 -96.8 1994.67
-154.667 -96.2667 1994.67
-150.662 -90.5994 1887.7
-150.662 -90.0946 1887.7
-150.662 -89.5899 1887.7
-154.667 -94.1333 1994.67
-154.667 -93.6 1994.67
-154.667 -93.0667 1994.67
-154.667 -92.5333 1994.67
-148.923 -84.9231 1841.23
-154.667 -91.4667 1994.67
-154.667 -90.9333 1994.67
-154.667 -90.4 1994.67
-154.667 -89.8667 1994.67
-154.667 -89.3333 1994.67
-154.667 -88.8 1994.67
-146.667 -78.8095 1780.95
-146.866 -78.5672 1786.27
-147.066 -78.3234 1791.62
-154.667 -86.6667 1994.67
-154.667 -86.1333 1994.67
-154.667 -85.6 1994.67
-154.667 -85.0667 1994.67
-154.667 -84.5333 1994.67
-154.667 -84 1994.67
-154.667 -83.4667 1994.67
-154.667 -82.9333 1994.67
-154.667 -82.4 1994.67
-148.502 -75.107 1829.97
-154.667 -81.3333 1994.67
-154.667 -80.8 1994.67
-154.667 -80.2667 1994.67
-154.667 -79.7333 1994.67
-154.667 -79.2 1994.67
-154.667 -78.6667 1994.67
-154.667 -78.1333 1994.67
-154.667 -77.6 1994.67
-154.667 -77.0667 1994.67
-154.667 -76.5333 1994.67
-149.782 -71.028 1864.17
-149.782 -70.5296 1864.17
-149.782 -70.0312 1864.17
-149.782 -69.5327 1864.17
-154.667 -73.8667 1994.67
-154.667 -73.3333 1994.67
-154.667 -72.8 1994.67
-154.667 -72.2667 1994.67
-148.712 -66.0123 1835.58
-148.712 -65.5215 1835.58
-149.35 -65.6347 1852.63
-146.866 -62.806 1786.27
-149.565 -64.8447 1858.39
-154.667 -69.0667 1994.67
-154.667 -68.5333 1994.67
-154.667 -68 1994.67
-149.565 -62.8571 1858.39
-154.667 -66.9333 1994.67
-149.782 -62.0561 1864.17
-149.782 -61.5576 1864.17
-146.272 -57.9882 1770.41
-151.565 -62.1086 1911.82
-147.267 -57.8979 1797
-151.795 -61.2821 1917.95
-147.674 -57.281 1807.85
-154.667 -62.6667 1994.67
-154.667 -62.1333 1994.67
-154.667 -61.6 1994.67
-154.667 -61.0667 1994.67
-150.219 -56.9279 1875.86
-150 -56.25 1870
-151.111 -56.6349 1899.68
-149.782 -55.0779 1864.17
-150 -54.75 1870
-149.565 -53.913 1858.39
-152.492 -55.6634 1936.57
-152.258 -54.9677 1930.32
-152.258 -54.4516 1930.32
-152.026 -53.7621 1924.12
-151.565 -52.9073 1911.82
-151.565 -52.3962 1911.82
-151.338 -51.7197 1905.73
-154.667 -53.6 1994.67
-154.667 -53.0667 1994.67
-154.667 -52.5333 1994.67
-154.667 -52 1994.67
-154.667 -51.4667 1994.67
-149.35 -47.3065 1852.63
-149.35 -46.8111 1852.63
-148.923 -46.0308 1841.23
-148.712 -45.3988 1835.58
-148.712 -44.908 1835.58
-148.293 -44.1463 1824.39
-147.674 -43.2628 1807.85
-147.674 -42.7795 1807.85
-147.674 -42.2961 1807.85
-147.674 -41.8127 1807.85
-147.674 -41.3293 1807.85
-146.469 -40.1187 1775.67
-146.469 -39.6439 1775.67
-154.667 -44 1994.67
-154.667 -43.4667 1994.67
-148.923 -39.6308 1841.23
-154.667 -42.4 1994.67
-154.667 -41.8667 1994.67
-149.782 -38.6293 1864.17
-149.782 -38.1308 1864.17
-154.667 -40.2667 1994.67
-150.219 -37.3668 1875.86
-154.667 -39.2 1994.67
-154.667 -38.6667 1994.67
-154.667 -38.1333 1994.67
-150.662 -35.5836 1887.7
-150.662 -35.0789 1887.7
-150 -34.25 1870
-150 -33.75 1870
-150.44 -33.4591 1881.76
-154.667 -34.9333 1994.67
-147.879 -31.2727 1813.33
-147.879 -30.7879 1813.33
-154.667 -33.3333 1994.67
-154.667 -32.8 1994.67
-154.667 -32.2667 1994.67
-147.674 -28.7613 1807.85
-147.674 -28.2779 1807.85
-147.674 -27.7946 1807.85
-147.267 -27.1471 1797
-148.293 -27.0732 1824.39
-148.293 -26.5854 1824.39
-154.667 -28.5333 1994.67
-147.47 -25.3012 1802.41
-147.47 -24.8193 1802.41
-147.47 -24.3373 1802.41
-154.667 -26.4 1994.67
-147.674 -23.4441 1807.85
-147.674 -22.9607 1807.85
-146.667 -22.1429 1780.95
-147.47 -21.9277 1802.41
-147.47 -21.4458 1802.41
-147.47 -20.9639 1802.41
-147.47 -20.4819 1802.41
-147.47 -20 1802.41
-147.674 -19.577 1807.85
-147.674 -19.0937 1807.85
-147.47 -18.5542 1802.41
-147.47 -18.0723 1802.41
-147.47 -17.5904 1802.41
-154.667 -18.9333 1994.67
-147.47 -16.6265 1802.41
-147.47 -16.1446 1802.41
-147.47 -15.6627 1802.41
-147.47 -15.1807 1802.41
-147.47 -14.6988 1802.41
-147.267 -14.1742 1797
-154.667 -15.2 1994.67
-154.667 -14.6667 1994.67
-154.667 -14.1333 1994.67
-154.667 -13.6 1994.67
-147.267 -11.7718 1797
-147.267 -11.2913 1797
-147.267 -10.8108 1797
-147.267 -10.3303 1797
-147.267 -9.84985 1797
-147.267 -9.36937 1797
-147.267 -8.88889 1797
-147.267 -8.40841 1797
-147.267 -7.92793 1797
-147.267 -7.44745 1797
-147.267 -6.96697 1797
-147.267 -6.48649 1797
-147.267 -6.00601 1797
-147.267 -5.52553 1797
-147.267 -5.04505 1797
-146.077 -4.48378 1765.19
-147.267 -4.08408 1797
-147.066 -3.59281 1791.62
-147.066 -3.11377 1791.62
-147.066 -2.63473 1791.62
-147.066 -2.15569 1791.62
-147.066 -1.67665 1791.62
-147.066 -1.1976 1791.62
-147.066 -0.718563 1791.62
-154.667 -0.266667 1994.67
-154.667 0.266667 1994.67
-147.066 0.718563 1791.62
-154.667 1.33333 1994.67
-147.066 1.67665 1791.62
-147.066 2.15569 1791.62
-147.066 2.63473 1791.62
-154.667 3.46667 1994.67
-154.667 4 1994.67
-147.066 4.07186 1791.62
-147.066 4.5509 1791.62
-146.866 5.01493 1786.27
-148.085 5.59271 1818.84
-154.667 6.66667 1994.67
-154.667 7.2 1994.67
-146.866 6.92537 1786.27
-146.866 7.40299 1786.27
-146.866 7.8806 1786.27
-146.866 8.35821 1786.27
-154.667 9.86667 1994.67
-146.866 9.31343 1786.27
-148.923 10.0923 1841.23
-154.667 11.4667 1994.67
-146.866 10.7463 1786.27
-146.866 11.2239 1786.27
-146.866 11.7015 1786.27
-146.866 12.1791 1786.27
-146.866 12.6567 1786.27
-146.866 13.1343 1786.27
-146.866 13.6119 1786.27
-146.866 14.0896 1786.27
-154.667 16.2667 1994.67
-154.667 16.8 1994.67
-149.565 16.1491 1858.39
-154.667 17.8667 1994.67
-154.667 18.4 1994.67
-154.667 18.9333 1994.67
-153.927 19.2739 1974.92
-154.667 20 1994.67
-146.667 18.3333 1780.95
-146.667 18.8095 1780.95
-146.667 19.2857 1780.95
-154.667 22.1333 1994.67
-154.667 22.6667 1994.67
-154.667 23.2 1994.67
-146.667 21.1905 1780.95
-154.667 24.2667 1994.67
-154.667 24.8 1994.67
-154.667 25.3333 1994.67
-154.667 25.8667 1994.67
-154.667 26.4 1994.67
-150 25.25 1870
-154.667 27.4667 1994.67
-146.469 24.9258 1775.67
-146.469 25.4006 1775.67
-146.469 25.8754 1775.67
-146.469 26.3501 1775.67
-146.469 26.8249 1775.67
-146.469 27.2997 1775.67
-149.565 29.0683 1858.39
-154.667 31.7333 1994.67
-154.667 32.2667 1994.67
-147.674 29.7281 1807.85
-154.667 33.3333 1994.67
-154.667 33.8667 1994.67
-154.667 34.4 1994.67
-154.667 34.9333 1994.67
-154.667 35.4667 1994.67
-154.667 36 1994.67
-154.667 36.5333 1994.67
-154.667 37.0667 1994.67
-154.667 37.6 1994.67
-154.667 38.1333 1994.67
-154.667 38.6667 1994.67
-154.667 39.2 1994.67
-154.667 39.7333 1994.67
-146.272 35.7396 1770.41
-154.667 40.8 1994.67
-154.667 41.3333 1994.67
-146.272 37.1598 1770.41
-146.272 37.6331 1770.41
-154.667 42.9333 1994.67
-154.667 43.4667 1994.67
-149.782 41.1215 1864.17
-146.272 39.5266 1770.41
-154.667 45.0667 1994.67
-154.667 45.6 1994.67
-154.667 46.1333 1994.67
-154.667 46.6667 1994.67
-154.667 47.2 1994.67
-154.667 47.7333 1994.67
-154.667 48.2667 1994.67
-154.667 48.8 1994.67
-154.667 49.3333 1994.67
-154.667 49.8667 1994.67
-151.111 48 1899.68
